ply
format ascii 1.0
element vertex 1197
property float x
property float y
property float z
property uchar red
property uchar green
property uchar blue
end_header
0.078565 -0.001360 0.536421 40 20 0
0.078976 -0.001361 0.536816 42 25 4
0.078701 -0.001351 0.532567 46 31 9
0.079242 -0.001354 0.533851 48 33 11
0.079026 -0.001344 0.530047 47 33 7
0.079586 -0.001348 0.531460 51 36 7
0.079923 -0.001348 0.531375 65 47 16
0.080145 -0.001346 0.530531 89 71 35
0.080636 -0.001348 0.531465 122 101 64
0.080958 -0.001347 0.531288 151 127 88
0.081315 -0.001348 0.531333 160 134 97
0.081671 -0.001348 0.531379 141 115 80
0.082028 -0.001348 0.531425 109 83 52
0.082377 -0.001348 0.531424 75 51 23
0.082611 -0.001346 0.530683 56 35 11
0.082863 -0.001344 0.530063 49 30 9
0.083007 -0.001341 0.528757 41 24 6
0.083257 -0.001339 0.528137 31 17 2
0.083612 -0.001340 0.528184 25 13 0
0.083700 -0.001335 0.526555 30 19 2
0.084070 -0.001336 0.526703 41 31 9
0.084211 -0.001333 0.525418 55 44 19
0.084564 -0.001333 0.525465 74 61 31
0.084917 -0.001333 0.525513 98 84 47
0.085271 -0.001333 0.525561 123 105 63
0.085624 -0.001333 0.525609 145 124 77
0.085978 -0.001333 0.525657 161 136 86
0.086331 -0.001333 0.525706 167 140 87
0.086685 -0.001333 0.525755 173 143 88
0.087039 -0.001334 0.525804 172 142 85
0.087393 -0.001334 0.525853 171 140 81
0.087747 -0.001334 0.525903 174 142 82
0.088102 -0.001334 0.525952 178 145 85
0.088531 -0.001335 0.526447 183 152 92
0.088885 -0.001335 0.526497 188 157 97
0.089353 -0.001337 0.527214 191 159 101
0.089979 -0.001341 0.528856 188 156 101
0.090201 -0.001339 0.528119 184 155 99
0.090770 -0.001343 0.529410 182 152 98
0.091087 -0.001342 0.529230 182 152 100
0.092081 -0.001352 0.532968 182 151 102
0.093756 -0.001371 0.540604 179 151 101
0.091649 -0.001335 0.526461 168 139 90
0.095289 -0.001383 0.545310 161 132 83
0.095582 -0.001382 0.544935 155 124 78
0.095939 -0.001382 0.544927 152 121 73
0.095959 -0.001377 0.543010 155 125 76
0.096345 -0.001378 0.543172 149 120 71
0.097033 -0.001382 0.545031 153 124 77
0.097248 -0.001380 0.544231 152 125 79
0.097609 -0.001380 0.544245 150 122 80
0.097930 -0.001380 0.544039 143 118 80
0.098291 -0.001380 0.544059 120 97 65
0.098689 -0.001380 0.544278 87 68 40
0.099056 -0.001381 0.544326 52 36 15
0.099423 -0.001381 0.544380 25 13 2
0.099915 -0.001383 0.545108 13 3 0
0.100246 -0.001382 0.544957 9 1 0
0.100701 -0.001383 0.545482 6 0 0
0.100954 -0.001382 0.544909 3 0 0
-0.058803 -0.000987 0.524917 204 167 113
-0.058502 -0.000988 0.525317 241 203 143
-0.058102 -0.000987 0.524828 254 218 154
-0.057752 -0.000987 0.524783 255 221 156
-0.057402 -0.000987 0.524739 255 224 158
-0.057052 -0.000987 0.524695 255 226 159
-0.057280 -0.000997 0.529992 255 228 159
-0.056903 -0.000996 0.529728 255 229 160
-0.056003 -0.000987 0.524565 255 231 162
-0.055654 -0.000987 0.524521 255 232 164
-0.055304 -0.000986 0.524479 255 231 164
-0.054955 -0.000986 0.524436 255 232 166
-0.054605 -0.000986 0.524394 255 232 168
-0.054256 -0.000986 0.524351 255 232 170
-0.053907 -0.000986 0.524309 255 229 166
-0.053753 -0.000990 0.526181 255 221 158
-0.053404 -0.000990 0.526148 255 220 157
-0.053053 -0.000990 0.526098 255 219 156
-0.052702 -0.000989 0.526049 255 218 155
-0.052411 -0.000990 0.526599 253 215 151
-0.052305 -0.000995 0.529032 248 205 139
-0.051951 -0.000995 0.528974 245 201 135
-0.051603 -0.000995 0.528975 247 203 136
-0.051250 -0.000995 0.528922 250 205 138
-0.050919 -0.000995 0.529096 254 211 142
-0.050567 -0.000995 0.529051 255 215 145
-0.050215 -0.000995 0.529009 255 217 149
-0.049875 -0.000995 0.529099 255 219 152
-0.049524 -0.000995 0.529063 255 221 153
-0.049168 -0.000995 0.528980 255 222 156
-0.048819 -0.000995 0.528970 255 222 159
-0.048869 -0.001003 0.533312 255 221 161
-0.048515 -0.001003 0.533274 253 214 155
-0.048213 -0.001004 0.533807 246 207 149
-0.047858 -0.001004 0.533769 244 205 148
-0.047684 -0.001008 0.535762 244 203 148
-0.047368 -0.001008 0.536169 242 201 144
-0.046973 -0.001008 0.535687 234 191 135
-0.046637 -0.001008 0.535871 224 181 122
-0.046281 -0.001008 0.535834 224 179 118
-0.045925 -0.001008 0.535797 220 175 113
-0.045570 -0.001008 0.535761 221 175 111
-0.045215 -0.001008 0.535724 221 175 109
-0.044859 -0.001008 0.535688 224 178 111
-0.044504 -0.001007 0.535652 229 183 114
-0.044149 -0.001007 0.535616 235 187 119
-0.043793 -0.001007 0.535581 239 194 125
-0.043456 -0.001008 0.535768 242 197 128
-0.043147 -0.001009 0.536303 245 199 131
-0.042791 -0.001009 0.536268 248 202 136
-0.042436 -0.001009 0.536233 249 206 139
-0.042046 -0.001008 0.535754 246 205 139
-0.041691 -0.001008 0.535720 241 199 136
-0.041336 -0.001008 0.535686 230 189 128
-0.040981 -0.001007 0.535653 222 181 120
-0.040643 -0.001008 0.535841 218 178 119
-0.040321 -0.001009 0.536252 221 180 122
-0.040252 -0.001016 0.540053 225 182 126
-0.039903 -0.001016 0.540145 226 184 125
-0.039546 -0.001016 0.540112 227 182 124
-0.039236 -0.001017 0.540746 223 178 118
-0.038878 -0.001017 0.540714 220 175 115
-0.038521 -0.001017 0.540682 222 177 114
-0.038163 -0.001017 0.540650 225 179 116
-0.037805 -0.001017 0.540618 229 185 120
-0.037462 -0.001017 0.540809 233 189 124
-0.037105 -0.001017 0.540777 232 191 125
-0.036747 -0.001017 0.540746 236 194 129
-0.036389 -0.001017 0.540716 238 199 135
-0.036031 -0.001017 0.540685 241 204 142
-0.035726 -0.001018 0.541446 244 209 150
-0.035765 -0.001030 0.547495 239 204 151
-0.035374 -0.001029 0.547020 229 196 146
-0.034998 -0.001028 0.546768 217 187 141
-0.034637 -0.001028 0.546738 204 177 135
-0.033696 -0.001011 0.537467 207 182 145
-0.033341 -0.001011 0.537439 201 179 146
-0.034505 -0.001057 0.562163 185 165 138
-0.034133 -0.001057 0.562134 145 128 105
-0.033788 -0.001058 0.562549 121 106 88
-0.034046 -0.001078 0.573117 107 93 79
-0.033694 -0.001079 0.573532 90 78 70
-0.033315 -0.001079 0.573503 68 58 51
-0.033298 -0.001090 0.579771 36 26 20
-0.032915 -0.001090 0.579742 20 9 4
-0.032532 -0.001090 0.579713 18 8 4
-0.032149 -0.001090 0.579685 17 8 4
0.032701 -0.001020 0.542298 17 7 0
0.032989 -0.001018 0.541181 22 10 1
0.033319 -0.001017 0.540751 26 15 0
0.033675 -0.001017 0.540766 31 19 3
0.034032 -0.001017 0.540781 43 28 8
0.034388 -0.001017 0.540797 67 51 30
0.034745 -0.001017 0.540813 101 85 58
0.035094 -0.001017 0.540707 132 114 81
0.035451 -0.001017 0.540723 161 143 104
0.035807 -0.001017 0.540740 182 159 117
0.036164 -0.001017 0.540756 200 177 128
0.036521 -0.001017 0.540773 214 187 135
0.036878 -0.001017 0.540790 229 199 144
0.037235 -0.001017 0.540808 239 205 147
0.037592 -0.001017 0.540825 243 209 145
0.037942 -0.001017 0.540743 244 207 142
0.038314 -0.001018 0.540983 245 205 139
0.038671 -0.001018 0.541002 235 194 126
0.039029 -0.001018 0.541020 236 195 126
0.039451 -0.001019 0.541928 223 181 111
0.039866 -0.001021 0.542736 225 182 111
0.040267 -0.001022 0.543322 226 181 110
0.040659 -0.001023 0.543786 225 180 108
0.040942 -0.001021 0.542794 226 180 111
0.041300 -0.001021 0.542814 225 182 110
0.041659 -0.001021 0.542835 227 184 112
0.042017 -0.001021 0.542855 228 185 113
0.042376 -0.001021 0.542876 231 188 116
0.042735 -0.001021 0.542897 229 186 114
0.043093 -0.001021 0.542918 227 184 112
0.043434 -0.001021 0.542717 223 180 108
0.043793 -0.001021 0.542739 221 178 108
0.044152 -0.001021 0.542760 223 182 112
0.044511 -0.001021 0.542783 224 183 113
0.044814 -0.001020 0.542138 229 188 118
0.045350 -0.001024 0.544284 226 185 117
0.045710 -0.001024 0.544306 223 182 114
0.045984 -0.001022 0.543318 214 173 107
0.046343 -0.001022 0.543341 213 173 106
0.046645 -0.001021 0.542698 212 172 108
0.047043 -0.001022 0.543166 215 175 111
0.047363 -0.001021 0.542745 217 177 114
0.047723 -0.001021 0.542769 210 172 111
0.048082 -0.001021 0.542794 207 168 112
0.048441 -0.001021 0.542818 203 164 110
0.048800 -0.001021 0.542843 205 166 115
0.049099 -0.001020 0.542202 187 148 98
0.049273 -0.001016 0.540203 154 116 67
0.049620 -0.001016 0.540105 127 89 40
0.049977 -0.001016 0.540130 128 90 43
0.050335 -0.001016 0.540156 159 123 74
0.050693 -0.001016 0.540182 189 154 104
0.051050 -0.001016 0.540209 190 156 104
0.051408 -0.001016 0.540235 173 137 84
0.051766 -0.001016 0.540262 167 131 76
0.052103 -0.001016 0.540067 177 141 85
0.052461 -0.001016 0.540094 190 153 95
0.052818 -0.001016 0.540121 198 159 100
0.053176 -0.001016 0.540149 194 154 93
0.053535 -0.001016 0.540177 196 154 92
0.053893 -0.001016 0.540205 198 155 93
0.054251 -0.001016 0.540233 197 155 92
0.054791 -0.001020 0.542066 190 148 85
0.055151 -0.001020 0.542095 187 144 82
0.055510 -0.001020 0.542124 190 147 86
0.055870 -0.001020 0.542153 197 154 94
0.056230 -0.001020 0.542183 200 157 96
0.056589 -0.001020 0.542213 197 154 94
0.056926 -0.001019 0.542020 192 150 91
0.057285 -0.001020 0.542051 192 149 90
0.057645 -0.001020 0.542081 195 152 94
0.058005 -0.001020 0.542112 195 152 95
0.058365 -0.001020 0.542143 193 150 92
0.058725 -0.001020 0.542174 192 149 90
0.059085 -0.001020 0.542206 196 153 94
0.059421 -0.001019 0.542015 199 156 97
0.059781 -0.001020 0.542047 201 159 100
0.060190 -0.001020 0.542524 202 161 103
0.060550 -0.001020 0.542556 203 163 107
0.060911 -0.001021 0.542589 204 165 111
0.061221 -0.001020 0.542177 199 161 110
0.061556 -0.001019 0.541988 186 152 104
0.061979 -0.001020 0.542563 174 141 96
0.062288 -0.001020 0.542152 150 119 76
0.062649 -0.001020 0.542185 114 85 45
0.062983 -0.001019 0.541997 84 57 17
0.063318 -0.001019 0.541809 72 45 5
0.063678 -0.001019 0.541843 98 71 27
0.063919 -0.001017 0.540863 141 114 68
0.064279 -0.001017 0.540898 180 150 103
0.064639 -0.001017 0.540933 202 171 121
0.064999 -0.001017 0.540968 203 172 121
0.065359 -0.001018 0.541004 197 167 116
0.065692 -0.001017 0.540817 171 140 90
0.066010 -0.001017 0.540505 143 110 62
0.066369 -0.001017 0.540541 122 91 43
0.066729 -0.001017 0.540577 115 85 39
0.066782 -0.001012 0.538139 128 99 56
0.067141 -0.001012 0.538175 144 114 73
0.067456 -0.001012 0.537864 157 130 90
0.067758 -0.001011 0.537456 162 135 97
0.068116 -0.001011 0.537493 137 111 75
0.068475 -0.001011 0.537531 98 71 40
0.068833 -0.001011 0.537568 69 44 15
0.069163 -0.001011 0.537384 66 42 13
0.068807 -0.001000 0.531899 83 60 31
0.069174 -0.001001 0.532033 91 69 42
0.069529 -0.001001 0.532071 98 76 47
0.069796 -0.001000 0.531442 101 76 46
0.070151 -0.001000 0.531481 103 79 44
0.070506 -0.001000 0.531520 122 99 59
0.070861 -0.001000 0.531559 138 113 69
0.071215 -0.001000 0.531598 165 138 90
0.071434 -0.000998 0.530621 172 144 92
0.071758 -0.000998 0.530438 180 148 93
0.072112 -0.000998 0.530478 189 158 100
0.072436 -0.000997 0.530296 191 157 100
0.072790 -0.000997 0.530336 193 159 102
0.074341 -0.001014 0.539049 182 146 90
0.074578 -0.001012 0.538201 170 136 81
0.074938 -0.001012 0.538242 169 134 84
0.075297 -0.001012 0.538284 160 127 80
0.075657 -0.001013 0.538326 135 101 60
0.076112 -0.001014 0.539035 103 71 33
0.076346 -0.001012 0.538188 74 43 9
0.076593 -0.001011 0.537436 75 45 14
0.076952 -0.001011 0.537478 87 57 30
0.077312 -0.001011 0.537521 100 72 47
0.077575 -0.001010 0.536898 90 64 40
0.077916 -0.001010 0.536812 71 47 24
0.078276 -0.001010 0.536856 48 26 5
0.078784 -0.001012 0.537917 39 19 0
0.078812 -0.001008 0.535704 41 24 5
0.078772 -0.001003 0.533045 48 33 13
0.079261 -0.001004 0.533978 50 35 15
0.079486 -0.001003 0.533134 50 36 12
0.079605 -0.001000 0.531587 52 37 10
0.079942 -0.001000 0.531502 63 47 17
0.080298 -0.001000 0.531547 83 64 31
0.080621 -0.000999 0.531369 111 91 53
0.080977 -0.001000 0.531415 140 117 78
0.081327 -0.001000 0.531413 156 133 93
0.081683 -0.001000 0.531459 146 123 84
0.082040 -0.001000 0.531505 117 94 58
0.082397 -0.001000 0.531551 83 60 27
0.082719 -0.000999 0.531375 60 40 10
0.083076 -0.001000 0.531421 50 32 8
0.083046 -0.000995 0.529004 42 26 6
0.083277 -0.000994 0.528263 32 18 2
0.083597 -0.000993 0.528088 24 12 0
0.083826 -0.000992 0.527347 27 15 3
0.084055 -0.000990 0.526607 38 26 10
0.084231 -0.000988 0.525543 54 41 21
0.084584 -0.000989 0.525591 72 57 32
0.084937 -0.000989 0.525638 93 77 45
0.085291 -0.000989 0.525686 117 99 62
0.085645 -0.000989 0.525734 134 114 71
0.085998 -0.000989 0.525783 150 126 79
0.086352 -0.000989 0.525832 155 130 78
0.086706 -0.000989 0.525880 158 131 76
0.087060 -0.000989 0.525929 159 129 73
0.087414 -0.000989 0.525979 166 134 77
0.087768 -0.000989 0.526028 169 137 77
0.088123 -0.000989 0.526078 178 145 86
0.088477 -0.000990 0.526128 185 153 93
0.088906 -0.000991 0.526622 192 160 100
0.089374 -0.000992 0.527339 198 166 107
0.089978 -0.000995 0.528849 194 162 105
0.090009 -0.000991 0.526996 189 160 101
0.090403 -0.000992 0.527270 182 152 96
0.091108 -0.000996 0.529350 181 151 97
0.091884 -0.001000 0.531829 184 154 103
0.093693 -0.001016 0.540244 179 151 99
0.091926 -0.000993 0.528047 169 140 91
0.095198 -0.001025 0.544789 161 133 83
0.095094 -0.001020 0.542149 152 120 74
0.095911 -0.001025 0.544768 149 119 70
0.095998 -0.001022 0.543229 147 116 67
0.096356 -0.001022 0.543237 140 109 60
0.096716 -0.001022 0.543248 138 107 60
0.097075 -0.001022 0.543260 135 106 61
0.097594 -0.001023 0.544163 139 109 68
0.097979 -0.001024 0.544313 137 111 73
0.098303 -0.001023 0.544126 124 101 68
0.098697 -0.001024 0.544320 94 74 47
0.099062 -0.001024 0.544363 59 43 23
0.099429 -0.001024 0.544413 28 15 5
0.099798 -0.001024 0.544469 13 2 0
0.100250 -0.001025 0.544978 8 0 0
0.100704 -0.001026 0.545497 5 0 0
0.100843 -0.001024 0.544313 3 0 0
-0.058842 -0.000644 0.525266 196 160 105
-0.058491 -0.000644 0.525221 233 197 137
-0.058116 -0.000643 0.524954 251 216 152
-0.057766 -0.000643 0.524909 255 223 157
-0.057416 -0.000643 0.524865 255 227 159
-0.057066 -0.000643 0.524821 255 229 160
-0.057269 -0.000649 0.529894 255 229 159
-0.056916 -0.000649 0.529853 255 231 163
-0.056017 -0.000643 0.524691 255 234 168
-0.055667 -0.000643 0.524648 255 235 170
-0.055317 -0.000643 0.524605 255 234 169
-0.054968 -0.000643 0.524562 255 232 168
-0.054618 -0.000643 0.524520 255 231 169
-0.054269 -0.000643 0.524478 255 232 172
-0.053920 -0.000643 0.524436 255 229 169
-0.053616 -0.000643 0.524838 255 222 162
-0.053312 -0.000644 0.525241 255 222 164
-0.052962 -0.000644 0.525200 255 222 164
-0.052613 -0.000644 0.525159 255 224 165
-0.052263 -0.000644 0.525118 255 221 161
-0.052317 -0.000648 0.529159 255 216 154
-0.051964 -0.000648 0.529101 255 215 150
-0.051616 -0.000648 0.529101 255 213 146
-0.051263 -0.000648 0.529049 255 213 144
-0.050910 -0.000648 0.529001 255 215 144
-0.050579 -0.000649 0.529178 255 216 145
-0.050227 -0.000648 0.529136 255 217 147
-0.049875 -0.000648 0.529096 255 221 151
-0.049515 -0.000648 0.528967 255 224 154
-0.049180 -0.000648 0.529107 255 227 158
-0.048831 -0.000648 0.529097 255 227 162
-0.048800 -0.000653 0.532552 255 224 162
-0.047891 -0.000645 0.526417 252 217 157
-0.047542 -0.000645 0.526379 247 211 153
-0.048032 -0.000657 0.535706 245 208 151
-0.047696 -0.000657 0.535891 242 204 148
-0.047379 -0.000657 0.536297 242 203 145
-0.047023 -0.000657 0.536260 236 195 137
-0.046667 -0.000657 0.536222 228 184 125
-0.046311 -0.000657 0.536185 227 182 121
-0.045956 -0.000657 0.536148 221 177 114
-0.045611 -0.000657 0.536238 220 173 112
-0.045255 -0.000657 0.536201 225 178 114
-0.044899 -0.000657 0.536165 227 180 116
-0.044543 -0.000657 0.536129 235 188 124
-0.044188 -0.000657 0.536093 237 189 125
-0.043814 -0.000657 0.535835 239 193 126
-0.043485 -0.000657 0.536118 239 193 126
-0.043139 -0.000657 0.536209 241 195 129
-0.042784 -0.000657 0.536174 246 199 135
-0.042429 -0.000657 0.536140 246 201 137
-0.042073 -0.000657 0.536105 243 199 134
-0.041701 -0.000657 0.535849 237 192 131
-0.041346 -0.000657 0.535815 228 183 123
-0.041025 -0.000657 0.536226 223 180 120
-0.040669 -0.000657 0.536192 225 182 124
-0.040340 -0.000657 0.536506 224 181 123
-0.040245 -0.000662 0.539961 224 181 125
-0.039913 -0.000662 0.540275 223 180 124
-0.039604 -0.000663 0.540909 223 179 126
-0.039246 -0.000663 0.540876 229 185 129
-0.038888 -0.000663 0.540844 225 179 124
-0.038530 -0.000663 0.540811 219 173 116
-0.038172 -0.000663 0.540779 217 169 113
-0.037814 -0.000663 0.540748 212 167 107
-0.037456 -0.000663 0.540716 220 175 113
-0.037098 -0.000663 0.540685 229 185 122
-0.036756 -0.000663 0.540876 236 192 129
-0.036398 -0.000663 0.540845 244 203 140
-0.036040 -0.000663 0.540815 247 208 146
-0.035726 -0.000664 0.541451 251 215 156
-0.035840 -0.000672 0.548639 246 211 157
-0.035477 -0.000672 0.548609 233 200 151
-0.035114 -0.000672 0.548579 217 186 139
-0.034531 -0.000668 0.545065 206 178 136
-0.033436 -0.000654 0.533321 206 180 144
-0.034934 -0.000690 0.563119 201 179 146
-0.034562 -0.000690 0.563089 188 169 141
-0.034189 -0.000690 0.563059 152 135 112
-0.033770 -0.000689 0.562239 127 112 94
-0.033398 -0.000689 0.562210 105 91 75
-0.033676 -0.000702 0.573225 80 69 57
-0.033323 -0.000703 0.573640 60 50 39
-0.033467 -0.000714 0.582726 30 20 12
-0.033082 -0.000714 0.582697 18 10 2
-0.032628 -0.000713 0.581433 19 11 5
-0.032313 -0.000714 0.582639 18 10 4
0.032606 -0.000663 0.540729 16 8 1
0.032997 -0.000663 0.541310 20 9 4
0.033319 -0.000663 0.540759 21 11 3
0.033676 -0.000663 0.540774 21 11 3
0.034032 -0.000663 0.540789 27 16 7
0.034389 -0.000663 0.540805 36 21 13
0.034746 -0.000663 0.540820 47 34 20
0.035088 -0.000663 0.540614 56 40 25
0.035445 -0.000663 0.540630 62 45 27
0.035801 -0.000663 0.540647 72 53 31
0.036158 -0.000663 0.540663 100 80 51
0.036515 -0.000663 0.540680 144 120 86
0.036872 -0.000663 0.540698 185 158 118
0.037228 -0.000663 0.540715 220 190 144
0.037585 -0.000663 0.540733 237 205 153
0.037935 -0.000663 0.540650 244 210 152
0.038323 -0.000663 0.541113 250 215 152
0.038665 -0.000663 0.540909 240 201 135
0.039022 -0.000663 0.540928 231 192 123
0.039469 -0.000664 0.542180 228 188 117
0.039876 -0.000665 0.542866 222 181 108
0.040260 -0.000666 0.543230 225 183 110
0.040652 -0.000666 0.543694 225 182 110
0.040994 -0.000666 0.543491 229 186 114
0.041327 -0.000666 0.543166 235 192 120
0.041686 -0.000666 0.543187 236 193 121
0.042045 -0.000666 0.543207 233 190 118
0.042403 -0.000666 0.543228 230 187 116
0.042727 -0.000665 0.542804 225 184 114
0.043086 -0.000665 0.542825 222 181 110
0.043445 -0.000665 0.542847 221 180 109
0.043804 -0.000665 0.542868 217 176 107
0.044163 -0.000665 0.542890 218 179 110
0.044540 -0.000666 0.543135 218 179 112
0.044899 -0.000666 0.543157 212 172 106
0.045173 -0.000664 0.542168 210 168 105
0.045569 -0.000665 0.542635 195 153 91
0.045976 -0.000666 0.543225 192 150 90
0.046335 -0.000666 0.543248 196 153 95
0.046695 -0.000666 0.543272 199 156 97
0.047054 -0.000666 0.543296 206 163 105
0.047394 -0.000666 0.543097 196 152 96
0.047754 -0.000666 0.543122 188 147 90
0.048093 -0.000665 0.542924 179 138 81
0.048453 -0.000665 0.542948 179 140 82
0.048792 -0.000665 0.542751 189 150 94
0.049151 -0.000665 0.542776 183 145 89
0.049274 -0.000662 0.540208 163 126 72
0.049632 -0.000662 0.540234 141 105 51
0.049989 -0.000662 0.540259 142 105 52
0.050347 -0.000662 0.540285 166 129 77
0.050705 -0.000662 0.540311 194 155 102
0.051063 -0.000662 0.540338 204 164 112
0.051399 -0.000662 0.540142 196 154 102
0.051757 -0.000662 0.540169 190 149 95
0.052115 -0.000662 0.540196 196 153 99
0.052473 -0.000662 0.540223 201 158 102
0.052831 -0.000662 0.540251 208 163 107
0.053189 -0.000662 0.540278 207 161 104
0.053547 -0.000662 0.540306 207 160 103
0.053883 -0.000662 0.540112 210 163 105
0.054445 -0.000664 0.542167 210 162 103
0.054804 -0.000664 0.542195 203 156 95
0.055164 -0.000664 0.542224 198 151 90
0.055524 -0.000665 0.542253 197 152 89
0.055883 -0.000665 0.542283 204 160 95
0.056220 -0.000664 0.542090 206 162 97
0.056580 -0.000664 0.542120 202 158 93
0.056939 -0.000664 0.542150 193 151 84
0.057299 -0.000664 0.542181 186 145 77
0.057646 -0.000664 0.542086 189 147 79
0.058006 -0.000664 0.542117 189 146 80
0.058365 -0.000664 0.542148 185 141 76
0.058725 -0.000664 0.542179 182 138 74
0.059085 -0.000664 0.542211 180 136 73
0.059445 -0.000665 0.542242 180 135 74
0.059795 -0.000664 0.542177 175 131 72
0.060204 -0.000665 0.542654 165 123 66
0.060551 -0.000665 0.542561 154 114 61
0.060911 -0.000665 0.542593 148 109 58
0.061272 -0.000665 0.542626 143 103 56
0.061582 -0.000664 0.542215 135 98 53
0.061943 -0.000665 0.542248 126 90 49
0.062278 -0.000664 0.542059 111 78 37
0.062638 -0.000664 0.542093 90 59 19
0.062999 -0.000664 0.542127 69 39 4
0.063333 -0.000664 0.541938 64 35 1
0.063679 -0.000664 0.541847 87 59 18
0.063934 -0.000663 0.540993 128 101 57
0.064294 -0.000663 0.541027 167 139 93
0.064654 -0.000663 0.541062 187 159 111
0.065014 -0.000663 0.541098 192 164 113
0.065348 -0.000663 0.540911 185 157 105
0.065692 -0.000663 0.540820 163 134 82
0.065998 -0.000662 0.540412 135 105 53
0.066358 -0.000662 0.540448 120 90 39
0.066718 -0.000662 0.540484 117 87 39
0.066798 -0.000660 0.538268 136 107 60
0.067102 -0.000659 0.537860 154 125 81
0.067460 -0.000659 0.537897 165 138 95
0.067858 -0.000660 0.538251 166 139 99
0.068217 -0.000660 0.538289 131 105 67
0.068519 -0.000659 0.537881 92 67 32
0.068821 -0.000659 0.537475 65 41 9
0.069179 -0.000659 0.537513 65 44 13
0.068836 -0.000652 0.532122 87 67 35
0.069162 -0.000652 0.531938 98 78 46
0.069517 -0.000652 0.531976 104 83 49
0.069842 -0.000652 0.531792 106 85 50
0.070168 -0.000651 0.531608 98 77 38
0.070523 -0.000652 0.531647 115 92 51
0.070877 -0.000652 0.531686 127 101 57
0.071203 -0.000651 0.531503 153 126 80
0.071558 -0.000651 0.531542 162 133 85
0.071758 -0.000650 0.530438 173 142 93
0.072099 -0.000650 0.530383 184 154 103
0.072453 -0.000650 0.530423 193 160 110
0.072790 -0.000650 0.530335 188 155 105
0.074236 -0.000660 0.538288 180 145 96
0.074596 -0.000660 0.538329 168 136 85
0.074956 -0.000660 0.538371 167 134 86
0.075315 -0.000660 0.538413 169 138 92
0.075675 -0.000660 0.538454 148 116 72
0.076004 -0.000660 0.538274 118 88 45
0.076251 -0.000659 0.537522 89 59 19
0.076611 -0.000659 0.537564 85 55 17
0.076971 -0.000659 0.537607 106 76 40
0.077298 -0.000659 0.537427 134 105 71
0.077575 -0.000658 0.536897 128 101 68
0.077935 -0.000658 0.536941 105 79 49
0.078294 -0.000658 0.536984 69 45 18
0.078654 -0.000658 0.537028 45 24 3
0.079131 -0.000659 0.537868 43 24 3
0.079289 -0.000658 0.536542 48 30 9
0.079044 -0.000653 0.532514 51 34 12
0.079486 -0.000653 0.533132 52 37 13
0.079591 -0.000651 0.531491 51 37 10
0.079947 -0.000651 0.531536 56 41 11
0.080284 -0.000651 0.531451 75 56 25
0.080633 -0.000651 0.531450 102 81 47
0.080990 -0.000651 0.531495 132 108 72
0.081346 -0.000651 0.531540 155 130 93
0.081566 -0.000650 0.530697 157 130 94
0.081922 -0.000650 0.530743 137 110 74
0.082382 -0.000651 0.531455 104 77 45
0.082600 -0.000650 0.530613 75 50 22
0.082957 -0.000650 0.530659 60 38 15
0.083189 -0.000649 0.529918 51 31 11
0.083774 -0.000651 0.531420 41 24 7
0.083562 -0.000647 0.527871 30 15 2
0.083882 -0.000647 0.527696 28 16 2
0.084039 -0.000645 0.526510 36 25 6
0.084251 -0.000644 0.525669 48 38 15
0.084604 -0.000644 0.525716 66 53 28
0.084958 -0.000644 0.525764 87 73 41
0.085311 -0.000644 0.525812 112 98 59
0.085665 -0.000644 0.525860 133 116 72
0.086019 -0.000645 0.525909 152 131 84
0.086373 -0.000645 0.525957 164 139 87
0.086727 -0.000645 0.526006 171 142 88
0.087081 -0.000645 0.526055 173 142 86
0.087435 -0.000645 0.526105 173 141 83
0.087789 -0.000645 0.526154 176 145 85
0.088144 -0.000645 0.526204 182 150 90
0.088498 -0.000645 0.526254 193 162 99
0.088965 -0.000646 0.526971 199 168 105
0.089396 -0.000646 0.527465 203 173 110
0.089713 -0.000646 0.527294 205 174 114
0.090069 -0.000646 0.527344 199 171 110
0.090348 -0.000646 0.526951 198 169 109
0.090919 -0.000647 0.528250 191 162 104
0.091804 -0.000651 0.531362 191 162 106
0.093317 -0.000659 0.538072 186 159 102
0.092027 -0.000648 0.528630 175 147 93
0.094330 -0.000662 0.539818 165 137 83
0.094772 -0.000662 0.540315 159 129 77
0.095104 -0.000662 0.540185 152 121 70
0.096231 -0.000667 0.544551 148 117 66
0.096368 -0.000666 0.543303 136 105 57
0.096687 -0.000666 0.543089 131 99 53
0.096903 -0.000665 0.542298 127 97 52
0.097466 -0.000666 0.543450 128 99 57
0.097829 -0.000666 0.543478 130 102 65
0.098192 -0.000666 0.543510 127 100 68
0.098677 -0.000667 0.544212 103 79 53
0.099069 -0.000667 0.544401 71 50 30
0.099435 -0.000667 0.544446 38 20 8
0.099803 -0.000667 0.544497 18 4 0
0.100145 -0.000667 0.544407 11 0 0
0.100501 -0.000667 0.544400 8 0 0
0.100887 -0.000667 0.544550 5 0 0
-0.058856 -0.000300 0.525392 198 161 106
-0.058506 -0.000300 0.525347 237 199 139
-0.058155 -0.000300 0.525303 253 216 152
-0.057805 -0.000299 0.525258 255 222 155
-0.057430 -0.000299 0.524992 255 225 157
-0.057080 -0.000299 0.524948 255 226 157
-0.056730 -0.000299 0.524904 255 228 157
-0.056380 -0.000299 0.524861 255 230 158
-0.056030 -0.000299 0.524817 255 232 161
-0.055680 -0.000299 0.524774 255 233 164
-0.055331 -0.000299 0.524731 255 233 163
-0.054981 -0.000299 0.524689 255 234 165
-0.054632 -0.000299 0.524646 255 235 168
-0.054282 -0.000299 0.524604 255 235 170
-0.054001 -0.000299 0.525229 255 232 166
-0.053652 -0.000299 0.525187 255 225 160
-0.053325 -0.000300 0.525368 255 227 163
-0.052975 -0.000300 0.525326 255 229 166
-0.052625 -0.000299 0.525285 255 232 167
-0.052276 -0.000299 0.525244 255 230 164
-0.052308 -0.000302 0.529064 255 223 156
-0.051976 -0.000302 0.529228 255 220 152
-0.051628 -0.000302 0.529228 255 219 149
-0.051275 -0.000302 0.529176 255 216 145
-0.050922 -0.000302 0.529128 255 215 141
-0.050570 -0.000302 0.529083 255 214 140
-0.050218 -0.000302 0.529041 255 215 142
-0.049887 -0.000302 0.529224 255 217 146
-0.049536 -0.000302 0.529187 255 219 150
-0.049171 -0.000302 0.529012 255 222 154
-0.048831 -0.000302 0.529097 255 224 158
-0.048791 -0.000304 0.532457 255 224 162
-0.048590 -0.000305 0.534102 252 217 158
-0.048348 -0.000305 0.535302 246 209 154
-0.048043 -0.000306 0.535835 244 207 154
-0.047687 -0.000305 0.535797 241 203 152
-0.047371 -0.000306 0.536204 241 200 151
-0.047015 -0.000306 0.536166 233 191 141
-0.046659 -0.000306 0.536129 225 183 131
-0.046303 -0.000306 0.536092 223 179 127
-0.045948 -0.000306 0.536055 221 177 122
-0.045573 -0.000305 0.535796 221 175 119
-0.045247 -0.000306 0.536108 220 174 116
-0.044891 -0.000306 0.536072 222 177 117
-0.044536 -0.000306 0.536036 223 179 116
-0.044198 -0.000306 0.536222 226 181 119
-0.043843 -0.000306 0.536187 225 183 120
-0.043487 -0.000306 0.536151 223 181 118
-0.043140 -0.000306 0.536212 221 179 116
-0.042776 -0.000306 0.536081 217 176 114
-0.042421 -0.000306 0.536046 218 178 117
-0.042066 -0.000306 0.536012 219 179 119
-0.041728 -0.000306 0.536200 219 178 122
-0.041373 -0.000306 0.536166 221 180 125
-0.041017 -0.000306 0.536132 219 178 123
-0.040662 -0.000306 0.536099 221 179 125
-0.040333 -0.000306 0.536413 223 181 127
-0.039995 -0.000306 0.536602 224 180 129
-0.039963 -0.000308 0.540946 219 176 122
-0.039597 -0.000308 0.540817 219 174 118
-0.039239 -0.000308 0.540784 216 171 114
-0.038897 -0.000308 0.540974 216 171 114
-0.038539 -0.000308 0.540941 216 172 111
-0.038181 -0.000308 0.540909 216 170 107
-0.037823 -0.000308 0.540878 213 169 104
-0.037465 -0.000308 0.540846 218 174 110
-0.037107 -0.000308 0.540815 222 180 114
-0.036749 -0.000308 0.540784 229 187 121
-0.036392 -0.000308 0.540753 236 197 131
-0.036064 -0.000309 0.541167 241 203 138
-0.035729 -0.000309 0.541484 246 210 150
-0.035782 -0.000312 0.547758 242 208 152
-0.035486 -0.000313 0.548741 233 201 149
-0.035188 -0.000313 0.549725 218 187 140
-0.034824 -0.000313 0.549695 209 183 140
-0.033381 -0.000304 0.532436 204 179 142
-0.034970 -0.000321 0.563699 204 183 150
-0.034597 -0.000321 0.563669 190 172 144
-0.034321 -0.000322 0.565221 153 137 113
-0.033778 -0.000321 0.562374 123 107 91
-0.033461 -0.000321 0.563260 89 76 63
-0.033684 -0.000327 0.573363 64 52 45
-0.033305 -0.000327 0.573334 48 37 32
-0.032926 -0.000327 0.573305 25 15 11
-0.032547 -0.000327 0.573276 20 9 6
-0.032636 -0.000332 0.581573 20 8 8
-0.032252 -0.000332 0.581544 16 7 3
0.033067 -0.000309 0.542451 16 6 0
0.033348 -0.000309 0.541232 17 7 1
0.033670 -0.000308 0.540681 18 8 2
0.034026 -0.000308 0.540696 20 9 4
0.034383 -0.000308 0.540712 25 13 8
0.034740 -0.000308 0.540728 31 19 10
0.035096 -0.000308 0.540744 37 25 14
0.035453 -0.000308 0.540760 41 28 12
0.035795 -0.000308 0.540554 48 33 14
0.036152 -0.000308 0.540571 59 43 17
0.036509 -0.000308 0.540588 86 65 36
0.036865 -0.000308 0.540605 128 107 71
0.037230 -0.000308 0.540745 171 146 105
0.037579 -0.000308 0.540640 210 184 136
0.037967 -0.000309 0.541102 230 200 147
0.038333 -0.000309 0.541243 235 203 146
0.038690 -0.000309 0.541261 227 193 132
0.039095 -0.000309 0.541946 223 186 121
0.039478 -0.000309 0.542310 215 176 111
0.039878 -0.000310 0.542896 211 172 104
0.040253 -0.000310 0.543138 214 173 102
0.040662 -0.000310 0.543824 212 172 100
0.041021 -0.000310 0.543844 221 179 107
0.041337 -0.000310 0.543297 225 184 110
0.041679 -0.000310 0.543095 227 187 112
0.042037 -0.000310 0.543115 230 189 114
0.042396 -0.000310 0.543136 227 187 113
0.042755 -0.000310 0.543157 222 184 111
0.043114 -0.000310 0.543178 219 181 107
0.043473 -0.000310 0.543199 209 171 100
0.043832 -0.000310 0.543221 207 166 97
0.044191 -0.000310 0.543243 208 167 98
0.044514 -0.000309 0.542820 210 168 102
0.044873 -0.000310 0.542843 209 167 102
0.045353 -0.000310 0.544322 209 167 104
0.045638 -0.000310 0.543456 204 163 101
0.045968 -0.000310 0.543133 203 162 102
0.046328 -0.000310 0.543156 207 168 108
0.046687 -0.000310 0.543180 202 164 105
0.047046 -0.000310 0.543204 206 168 110
0.047406 -0.000310 0.543227 204 163 107
0.047765 -0.000310 0.543252 199 158 103
0.048085 -0.000309 0.542832 192 151 96
0.048444 -0.000310 0.542856 186 145 91
0.048812 -0.000310 0.542980 185 144 90
0.049111 -0.000309 0.542338 179 140 84
0.049470 -0.000309 0.542363 158 119 62
0.049643 -0.000308 0.540363 142 104 46
0.050001 -0.000308 0.540389 144 106 48
0.050359 -0.000308 0.540415 169 131 72
0.050696 -0.000308 0.540219 197 159 99
0.051054 -0.000308 0.540245 206 168 106
0.051412 -0.000308 0.540272 191 151 88
0.051770 -0.000308 0.540298 187 147 82
0.052128 -0.000308 0.540325 190 151 84
0.052486 -0.000308 0.540353 200 161 93
0.052844 -0.000308 0.540380 212 172 103
0.053202 -0.000308 0.540408 215 174 106
0.053538 -0.000308 0.540213 223 180 112
0.053896 -0.000308 0.540242 229 185 118
0.054458 -0.000309 0.542297 229 186 118
0.054818 -0.000309 0.542325 224 181 113
0.055155 -0.000309 0.542132 222 178 112
0.055514 -0.000309 0.542161 226 183 118
0.055874 -0.000309 0.542191 232 190 124
0.056233 -0.000309 0.542220 235 193 127
0.056593 -0.000309 0.542250 231 187 123
0.056953 -0.000309 0.542280 220 175 113
0.057313 -0.000309 0.542311 209 164 102
0.057660 -0.000309 0.542216 203 159 97
0.058019 -0.000309 0.542247 203 157 96
0.058379 -0.000309 0.542278 204 157 97
0.058739 -0.000309 0.542309 208 161 99
0.059075 -0.000309 0.542118 208 161 99
0.059435 -0.000309 0.542150 201 154 93
0.059795 -0.000309 0.542182 192 147 85
0.060205 -0.000309 0.542658 182 138 76
0.060565 -0.000309 0.542691 176 132 73
0.060926 -0.000309 0.542723 174 131 74
0.061211 -0.000309 0.542089 170 128 73
0.061572 -0.000309 0.542122 162 121 71
0.061932 -0.000309 0.542155 150 111 64
0.062293 -0.000309 0.542189 130 93 48
0.062653 -0.000309 0.542222 104 69 27
0.063014 -0.000309 0.542256 81 47 9
0.063348 -0.000309 0.542068 75 42 4
0.063563 -0.000308 0.540866 97 65 24
0.064028 -0.000309 0.541789 135 103 61
0.064310 -0.000309 0.541157 171 139 95
0.064670 -0.000309 0.541192 186 153 109
0.065003 -0.000308 0.541005 185 154 108
0.065363 -0.000308 0.541040 179 148 101
0.065708 -0.000308 0.540950 154 123 77
0.065987 -0.000308 0.540319 132 102 57
0.066347 -0.000308 0.540355 115 85 41
0.066707 -0.000308 0.540391 117 88 46
0.066968 -0.000308 0.539634 130 102 62
0.067173 -0.000307 0.538433 144 116 78
0.067504 -0.000307 0.538248 154 126 91
0.067819 -0.000307 0.537936 159 130 97
0.068149 -0.000307 0.537751 130 103 71
0.068564 -0.000307 0.538233 93 66 37
0.068923 -0.000307 0.538270 67 40 10
0.069282 -0.000307 0.538308 69 42 15
0.068823 -0.000303 0.532027 87 62 34
0.069178 -0.000303 0.532065 97 72 43
0.069533 -0.000303 0.532103 102 77 46
0.069888 -0.000303 0.532141 106 81 48
0.070214 -0.000303 0.531958 107 83 45
0.070569 -0.000303 0.531996 127 101 61
0.070865 -0.000303 0.531591 135 108 64
0.071220 -0.000303 0.531630 154 125 78
0.071635 -0.000303 0.532114 157 126 77
0.071745 -0.000302 0.530342 165 132 82
0.072099 -0.000302 0.530382 179 147 94
0.072423 -0.000302 0.530200 187 153 101
0.072777 -0.000302 0.530240 180 146 94
0.074254 -0.000307 0.538417 173 135 86
0.074614 -0.000307 0.538458 160 124 75
0.074973 -0.000307 0.538500 160 124 77
0.075333 -0.000307 0.538542 166 132 86
0.075662 -0.000307 0.538361 155 121 78
0.076022 -0.000307 0.538403 126 94 52
0.076301 -0.000307 0.537873 101 71 31
0.076598 -0.000306 0.537471 79 50 12
0.076957 -0.000306 0.537513 94 66 30
0.077317 -0.000306 0.537556 114 87 53
0.077594 -0.000306 0.537026 127 103 69
0.077953 -0.000306 0.537069 108 86 55
0.078281 -0.000306 0.536890 81 59 32
0.078640 -0.000306 0.536934 51 29 6
0.079117 -0.000307 0.537774 41 21 0
0.079176 -0.000305 0.535782 44 26 5
0.079029 -0.000304 0.532419 46 28 8
0.079135 -0.000303 0.530778 47 30 10
0.079786 -0.000304 0.532794 49 32 9
0.079958 -0.000303 0.531607 52 35 8
0.080195 -0.000303 0.530865 68 48 19
0.080518 -0.000303 0.530688 95 73 41
0.080874 -0.000303 0.530733 124 101 65
0.081230 -0.000303 0.530778 150 127 89
0.081586 -0.000303 0.530824 161 136 99
0.081942 -0.000303 0.530870 146 120 85
0.082264 -0.000303 0.530694 117 90 59
0.082620 -0.000303 0.530740 85 60 32
0.082957 -0.000303 0.530665 63 42 18
0.083314 -0.000303 0.530712 52 35 13
0.083546 -0.000302 0.529971 40 26 9
0.083742 -0.000302 0.529007 28 16 3
0.083992 -0.000301 0.528388 22 12 0
0.084185 -0.000301 0.527425 27 17 4
0.084378 -0.000300 0.526461 39 27 12
0.084625 -0.000300 0.525842 54 41 22
0.084978 -0.000300 0.525890 75 60 35
0.085332 -0.000300 0.525938 102 87 54
0.085686 -0.000300 0.525986 128 110 70
0.086039 -0.000300 0.526035 150 128 83
0.086393 -0.000300 0.526083 165 143 92
0.086747 -0.000300 0.526132 170 144 90
0.087102 -0.000300 0.526181 172 144 86
0.087456 -0.000300 0.526231 175 146 85
0.087810 -0.000300 0.526280 180 151 88
0.088165 -0.000300 0.526330 187 156 94
0.088669 -0.000301 0.527269 193 163 100
0.088874 -0.000300 0.526430 196 166 103
0.089266 -0.000300 0.526703 198 167 105
0.090022 -0.000302 0.529109 201 170 110
0.090090 -0.000301 0.527471 201 172 111
0.090370 -0.000301 0.527077 202 173 114
0.090940 -0.000301 0.528373 202 172 116
0.091900 -0.000303 0.531920 199 169 116
0.093121 -0.000306 0.536942 193 165 113
0.093834 -0.000307 0.539009 184 155 106
0.094407 -0.000308 0.540261 167 139 89
0.094763 -0.000308 0.540266 161 131 83
0.095339 -0.000309 0.541520 152 120 74
0.095982 -0.000310 0.543143 153 122 75
0.095834 -0.000308 0.540294 143 112 66
0.096699 -0.000310 0.543153 133 102 55
0.097115 -0.000310 0.543486 127 98 52
0.097477 -0.000310 0.543508 124 95 53
0.097839 -0.000310 0.543533 129 100 61
0.098201 -0.000310 0.543561 129 102 68
0.098686 -0.000310 0.544260 110 86 57
0.099050 -0.000310 0.544296 79 59 36
0.099401 -0.000310 0.544257 43 26 10
0.099808 -0.000310 0.544525 17 5 0
0.100163 -0.000310 0.544506 8 0 0
0.100539 -0.000311 0.544603 6 0 0
0.100877 -0.000310 0.544493 3 0 0
-0.058845 0.000045 0.525297 200 165 109
-0.058495 0.000045 0.525252 238 202 141
-0.058144 0.000045 0.525207 253 220 155
-0.057819 0.000045 0.525385 255 224 158
-0.057468 0.000045 0.525341 255 226 159
-0.057118 0.000045 0.525297 255 226 159
-0.056768 0.000045 0.525253 255 226 159
-0.056418 0.000045 0.525209 255 229 161
-0.056091 0.000045 0.525388 255 231 164
-0.055694 0.000045 0.524901 255 230 164
-0.055344 0.000045 0.524858 255 229 163
-0.055041 0.000045 0.525260 255 230 164
-0.054691 0.000045 0.525217 255 231 167
-0.054341 0.000045 0.525175 255 234 172
-0.053969 0.000045 0.524911 255 232 170
-0.053665 0.000045 0.525314 255 225 163
-0.053315 0.000045 0.525272 255 222 162
-0.052965 0.000045 0.525231 255 220 161
-0.052616 0.000045 0.525190 255 221 162
-0.052266 0.000045 0.525149 255 221 162
-0.052386 0.000045 0.529857 255 214 154
-0.052032 0.000045 0.529800 253 210 149
-0.051722 0.000045 0.530191 249 205 141
-0.051352 0.000045 0.529970 248 203 138
-0.050999 0.000045 0.529922 250 206 139
-0.050646 0.000045 0.529877 253 212 145
-0.050293 0.000045 0.529835 255 218 151
-0.049974 0.000045 0.530148 255 221 153
-0.049622 0.000045 0.530112 255 224 156
-0.049192 0.000045 0.529240 255 224 158
-0.049124 0.000045 0.532275 255 227 164
-0.048864 0.000045 0.533253 255 225 166
-0.048602 0.000046 0.534230 253 218 160
-0.048359 0.000046 0.535431 248 212 156
-0.048055 0.000046 0.535964 245 208 153
-0.047719 0.000046 0.536148 241 201 148
-0.047363 0.000046 0.536111 237 198 143
-0.047007 0.000046 0.536073 227 186 131
-0.046651 0.000046 0.536036 219 178 122
-0.046295 0.000046 0.535998 217 174 118
-0.045921 0.000046 0.535739 215 172 114
-0.045584 0.000046 0.535925 215 170 111
-0.045247 0.000046 0.536111 214 170 110
-0.044891 0.000046 0.536074 216 172 112
-0.044528 0.000046 0.535943 215 170 111
-0.044191 0.000046 0.536129 211 165 108
-0.043835 0.000046 0.536094 210 164 107
-0.043488 0.000046 0.536154 204 158 101
-0.043124 0.000046 0.536023 200 155 99
-0.042769 0.000046 0.535988 193 149 93
-0.042414 0.000046 0.535953 191 148 92
-0.042076 0.000046 0.536141 195 151 98
-0.041721 0.000046 0.536107 203 159 106
-0.041365 0.000046 0.536073 211 167 116
-0.041010 0.000046 0.536039 215 174 122
-0.040689 0.000046 0.536450 219 177 125
-0.040350 0.000046 0.536639 218 176 124
-0.040340 0.000046 0.541235 220 176 124
-0.039981 0.000046 0.541202 214 170 116
-0.039623 0.000046 0.541169 214 168 113
-0.039265 0.000046 0.541137 216 171 114
-0.038907 0.000046 0.541104 215 170 111
-0.038548 0.000046 0.541072 218 173 113
-0.038190 0.000046 0.541040 220 173 114
-0.037832 0.000046 0.541008 220 175 113
-0.037490 0.000046 0.541199 226 181 119
-0.037131 0.000046 0.541167 230 186 123
-0.036773 0.000046 0.541136 236 192 129
-0.036415 0.000046 0.541105 243 201 137
-0.036057 0.000046 0.541075 247 207 144
-0.035737 0.000046 0.541614 249 211 152
-0.035849 0.000047 0.548779 249 212 156
-0.035545 0.000047 0.549665 236 202 150
-0.035182 0.000047 0.549635 221 188 141
-0.034818 0.000047 0.549605 210 181 139
-0.033367 0.000045 0.532217 205 177 141
-0.034972 0.000048 0.563737 210 186 153
-0.034600 0.000048 0.563707 203 181 154
-0.034302 0.000048 0.564913 162 143 120
-0.033929 0.000048 0.564883 133 118 101
-0.033401 0.000048 0.562258 89 76 63
-0.033195 0.000048 0.565047 66 53 46
-0.032822 0.000048 0.565018 46 35 30
-0.032940 0.000049 0.573541 24 13 10
-0.032561 0.000049 0.573512 18 10 6
-0.032587 0.000049 0.580700 18 9 8
-0.032203 0.000049 0.580671 14 8 3
0.033061 0.000046 0.542359 16 5 2
0.033356 0.000046 0.541363 16 8 1
0.033672 0.000046 0.540711 18 10 4
0.034021 0.000046 0.540604 18 10 4
0.034377 0.000046 0.540619 22 11 6
0.034734 0.000046 0.540635 23 13 5
0.035090 0.000046 0.540651 24 14 6
0.035447 0.000046 0.540667 27 15 3
0.035804 0.000046 0.540684 29 15 1
0.036161 0.000046 0.540701 36 21 2
0.036502 0.000046 0.540495 52 33 11
0.036859 0.000046 0.540512 70 50 21
0.037216 0.000046 0.540530 104 81 48
0.037572 0.000046 0.540547 140 115 76
0.037960 0.000046 0.541010 174 145 101
0.038342 0.000046 0.541373 199 168 118
0.038699 0.000046 0.541391 195 162 108
0.039089 0.000046 0.541854 202 166 109
0.039488 0.000046 0.542440 207 170 108
0.039895 0.000046 0.543126 219 180 116
0.040296 0.000046 0.543713 225 185 119
0.040671 0.000046 0.543954 225 184 116
0.041031 0.000046 0.543974 228 185 115
0.041356 0.000046 0.543550 229 186 114
0.041689 0.000046 0.543225 230 187 115
0.042030 0.000046 0.543023 228 185 113
0.042389 0.000046 0.543044 227 184 114
0.042748 0.000046 0.543065 220 178 108
0.043107 0.000046 0.543086 212 171 101
0.043466 0.000046 0.543107 208 166 97
0.043825 0.000046 0.543129 202 160 95
0.044184 0.000046 0.543151 208 166 101
0.044543 0.000046 0.543173 208 166 101
0.044902 0.000046 0.543195 206 164 99
0.045261 0.000046 0.543218 202 160 96
0.045602 0.000046 0.543018 193 153 89
0.045961 0.000046 0.543041 196 156 94
0.046320 0.000046 0.543065 204 165 101
0.046679 0.000046 0.543088 201 162 98
0.047038 0.000046 0.543112 197 157 93
0.047398 0.000046 0.543136 185 143 80
0.047757 0.000046 0.543160 177 137 73
0.048116 0.000046 0.543184 183 143 79
0.048456 0.000046 0.542987 192 153 89
0.048784 0.000046 0.542665 212 172 109
0.049103 0.000046 0.542246 215 177 115
0.049462 0.000046 0.542271 194 156 94
0.049728 0.000046 0.541284 180 142 80
0.050066 0.000046 0.541087 172 134 74
0.050350 0.000046 0.540322 186 148 86
0.050708 0.000046 0.540348 200 163 100
0.051045 0.000046 0.540152 206 168 106
0.051403 0.000046 0.540179 205 166 104
0.051761 0.000046 0.540206 204 164 101
0.052119 0.000046 0.540233 206 165 101
0.052477 0.000046 0.540260 201 159 94
0.052835 0.000046 0.540288 198 155 90
0.053193 0.000046 0.540315 199 155 90
0.053551 0.000046 0.540343 203 158 94
0.053998 0.000046 0.541260 212 165 100
0.054449 0.000046 0.542205 217 170 104
0.054808 0.000046 0.542233 214 168 100
0.055168 0.000046 0.542262 216 170 101
0.055527 0.000046 0.542292 219 175 104
0.055874 0.000046 0.542196 225 182 109
0.056234 0.000046 0.542226 235 193 118
0.056594 0.000046 0.542255 240 197 123
0.056954 0.000046 0.542286 242 199 124
0.057313 0.000046 0.542316 244 202 125
0.057673 0.000046 0.542346 248 206 129
0.058010 0.000046 0.542155 252 210 134
0.058369 0.000046 0.542186 250 209 134
0.058729 0.000046 0.542217 246 205 132
0.059090 0.000046 0.542248 240 199 126
0.059450 0.000046 0.542280 231 191 119
0.059810 0.000046 0.542312 223 184 113
0.060195 0.000046 0.542566 219 180 110
0.060555 0.000046 0.542598 221 183 115
0.060916 0.000046 0.542631 228 191 125
0.061276 0.000046 0.542664 231 194 129
0.061587 0.000046 0.542252 229 191 127
0.061947 0.000046 0.542286 219 182 120
0.062307 0.000046 0.542319 198 162 103
0.062642 0.000046 0.542130 167 131 74
0.062977 0.000046 0.541942 132 95 40
0.063152 0.000046 0.540391 108 72 18
0.063579 0.000046 0.540996 114 78 24
0.064017 0.000046 0.541697 138 102 48
0.064299 0.000046 0.541065 165 128 74
0.064659 0.000046 0.541100 177 141 88
0.065019 0.000046 0.541135 178 143 92
0.065391 0.000046 0.541266 172 137 88
0.065697 0.000046 0.540857 147 114 65
0.066003 0.000046 0.540449 129 96 49
0.066335 0.000046 0.540262 113 82 36
0.066695 0.000046 0.540299 120 89 45
0.066957 0.000046 0.539542 133 104 62
0.067162 0.000046 0.538340 143 116 76
0.067520 0.000046 0.538377 154 129 90
0.067863 0.000046 0.538287 159 133 97
0.068222 0.000046 0.538324 127 103 69
0.068581 0.000046 0.538362 94 70 37
0.068968 0.000046 0.538621 69 44 12
0.069327 0.000046 0.538659 67 42 12
0.068840 0.000045 0.532155 85 63 32
0.069195 0.000045 0.532193 93 71 40
0.069521 0.000045 0.532008 103 81 46
0.069876 0.000045 0.532047 114 90 55
0.070231 0.000045 0.532085 120 97 56
0.070586 0.000045 0.532124 154 129 84
0.070941 0.000045 0.532163 172 145 97
0.071296 0.000045 0.532202 186 158 108
0.071622 0.000045 0.532020 181 153 101
0.071900 0.000045 0.531487 166 135 84
0.072086 0.000045 0.530287 171 141 90
0.072610 0.000045 0.531566 167 134 84
0.072982 0.000045 0.531735 149 116 65
0.074381 0.000046 0.539342 144 109 62
0.074742 0.000046 0.539383 129 95 50
0.075084 0.000046 0.539296 142 108 65
0.075445 0.000046 0.539337 152 120 76
0.075681 0.000046 0.538490 155 123 82
0.076041 0.000046 0.538533 128 98 56
0.076288 0.000046 0.537779 106 76 34
0.076648 0.000046 0.537822 79 49 9
0.076976 0.000046 0.537642 97 67 29
0.077336 0.000046 0.537685 121 92 56
0.077613 0.000046 0.537155 142 115 81
0.077940 0.000046 0.536976 129 104 71
0.078299 0.000046 0.537019 94 71 41
0.078659 0.000046 0.537063 59 38 13
0.079019 0.000046 0.537107 40 21 2
0.079181 0.000046 0.535817 42 24 4
0.079157 0.000045 0.533278 47 31 11
0.079598 0.000045 0.533887 49 36 14
0.079872 0.000045 0.533367 51 39 15
0.079977 0.000045 0.531735 52 39 11
0.080282 0.000045 0.531437 59 44 13
0.080537 0.000045 0.530815 76 58 25
0.080893 0.000045 0.530860 101 79 42
0.081249 0.000045 0.530906 132 107 68
0.081397 0.000045 0.529598 155 128 88
0.081753 0.000045 0.529644 151 123 84
0.082284 0.000045 0.530821 128 100 64
0.082640 0.000045 0.530868 95 68 36
0.082977 0.000045 0.530793 68 43 17
0.083334 0.000045 0.530839 55 33 11
0.083496 0.000045 0.529653 43 24 7
0.083621 0.000045 0.528245 31 15 2
0.083976 0.000045 0.528292 23 11 0
0.084347 0.000045 0.528440 24 13 1
0.084398 0.000045 0.526588 34 23 6
0.084716 0.000045 0.526413 47 37 15
0.084999 0.000045 0.526016 64 55 26
0.085352 0.000045 0.526065 87 77 42
0.085706 0.000045 0.526113 115 102 61
0.086060 0.000045 0.526161 139 123 76
0.086414 0.000045 0.526210 160 140 88
0.086768 0.000045 0.526259 167 143 89
0.087123 0.000045 0.526308 169 143 88
0.087477 0.000045 0.526357 169 141 84
0.087831 0.000045 0.526407 173 146 86
0.088260 0.000045 0.526901 178 150 89
0.088541 0.000045 0.526506 185 157 94
0.088895 0.000045 0.526556 191 160 97
0.089401 0.000045 0.527496 193 162 99
0.090043 0.000045 0.529233 200 167 105
0.089998 0.000045 0.526931 202 171 109
0.090354 0.000045 0.526982 204 174 111
0.090709 0.000045 0.527033 203 173 110
0.092544 0.000046 0.535650 201 170 110
0.093138 0.000046 0.537039 196 167 108
0.093493 0.000046 0.537054 189 159 103
0.094244 0.000046 0.539328 180 150 96
0.094737 0.000046 0.540115 171 141 90
0.095314 0.000046 0.541376 161 130 79
0.095994 0.000046 0.543211 159 128 79
0.096612 0.000046 0.544679 147 119 70
0.096620 0.000046 0.542713 137 108 62
0.097086 0.000046 0.543324 132 103 59
0.097487 0.000046 0.543566 130 101 58
0.097849 0.000046 0.543588 132 103 64
0.098291 0.000046 0.544057 133 107 71
0.098654 0.000046 0.544086 119 96 65
0.099096 0.000046 0.544545 90 69 45
0.099424 0.000046 0.544384 57 38 19
0.099795 0.000046 0.544453 25 10 4
0.100167 0.000046 0.544531 10 0 0
0.100501 0.000046 0.544399 6 0 0
0.100878 0.000046 0.544503 5 0 0
0.101218 0.000046 0.544402 3 0 0
-0.058860 0.000389 0.525424 194 158 107
-0.058509 0.000389 0.525379 232 195 139
-0.058159 0.000389 0.525334 251 214 154
-0.057808 0.000389 0.525290 255 221 158
-0.057458 0.000389 0.525246 255 224 158
-0.057108 0.000389 0.525202 255 223 155
-0.056757 0.000389 0.525158 255 223 153
-0.056592 0.000390 0.526837 255 223 154
-0.056241 0.000390 0.526796 255 223 154
-0.055707 0.000389 0.525028 255 222 155
-0.055358 0.000389 0.524985 255 225 157
-0.055008 0.000389 0.524942 255 229 162
-0.054658 0.000389 0.524900 255 234 168
-0.054354 0.000389 0.525302 255 236 171
-0.054005 0.000389 0.525260 255 233 168
-0.053655 0.000389 0.525218 255 226 162
-0.053305 0.000389 0.525177 255 223 160
-0.052956 0.000389 0.525135 255 220 157
-0.052628 0.000389 0.525317 255 220 156
-0.052279 0.000389 0.525276 255 221 157
-0.052377 0.000392 0.529763 255 218 152
-0.052045 0.000392 0.529927 255 216 148
-0.051713 0.000393 0.530097 255 211 142
-0.051364 0.000393 0.530098 254 207 136
-0.051011 0.000393 0.530050 252 207 133
-0.050658 0.000392 0.530005 254 211 136
